ply
format ascii 1.0
comment : MagicaVoxel @ Ephtracy
element vertex 2309
property float x
property float y
property float z
property uchar red
property uchar green
property uchar blue
end_header
11 -6 55 118 100 86
10 20 88 188 167 140
19 -20 16 188 167 140
18 -20 16 118 100 86
17 -20 16 118 100 86
16 -20 16 118 100 86
15 -20 16 118 100 86
14 -20 16 118 100 86
13 -20 16 118 100 86
12 -20 16 188 167 140
11 -20 16 188 167 140
10 -20 16 118 100 86
9 -20 16 118 100 86
8 -20 16 118 100 86
7 -20 16 118 100 86
6 -20 16 118 100 86
5 -20 16 118 100 86
4 -20 16 188 167 140
3 -20 16 188 167 140
2 -20 16 118 100 86
1 -20 16 118 100 86
0 -20 16 118 100 86
-1 -20 16 118 100 86
-2 -20 16 118 100 86
-3 -20 16 118 100 86
-4 -20 16 188 167 140
-5 -20 16 188 167 140
-6 -20 16 118 100 86
-7 -20 16 118 100 86
-8 -20 16 118 100 86
-9 -20 16 118 100 86
-10 -20 16 118 100 86
-11 -20 16 118 100 86
-12 -20 16 188 167 140
-13 -20 16 188 167 140
-14 -20 16 118 100 86
-15 -20 16 118 100 86
-16 -20 16 118 100 86
-17 -20 16 118 100 86
-18 -20 16 118 100 86
-19 -20 16 118 100 86
-20 -20 16 188 167 140
-16 19 52 158 164 110
20 -16 43 188 167 140
4 21 88 188 167 140
12 -21 39 188 167 140
13 -21 39 188 167 140
14 -21 39 188 167 140
35 -8 5 188 167 140
-36 -7 5 188 167 140
15 -21 39 188 167 140
16 -21 39 188 167 140
17 -21 39 188 167 140
18 -21 39 188 167 140
28 20 8 188 167 140
11 22 28 118 100 86
11 23 28 188 167 140
11 24 28 188 167 140
11 25 28 118 100 86
11 26 28 188 167 140
11 -13 81 188 167 140
11 20 29 118 100 86
-20 -27 85 188 167 140
-13 -28 85 188 167 140
-14 -28 85 188 167 140
-15 -28 85 188 167 140
-16 -28 85 188 167 140
-17 -28 85 188 167 140
-21 -21 16 188 167 140
11 20 59 118 100 86
-35 -8 72 188 167 140
-35 -11 79 188 167 140
-20 -5 55 188 167 140
-19 -5 55 188 167 140
-18 -5 55 188 167 140
-17 -5 55 188 167 140
-16 -5 55 188 167 140
-15 -5 55 188 167 140
-14 -5 55 188 167 140
-13 -5 55 188 167 140
5 21 88 188 167 140
-13 -28 34 188 167 140
-12 -28 34 188 167 140
-13 -28 35 188 167 140
-12 -28 35 188 167 140
-13 -28 36 188 167 140
-12 -28 36 188 167 140
-13 -28 37 188 167 140
18 3 63 188 167 140
19 3 63 188 167 140
-7 -28 41 188 167 140
-8 -28 41 188 167 140
-9 -28 41 188 167 140
-10 -28 41 188 167 140
-11 -28 41 188 167 140
-12 -28 41 188 167 140
20 -7 45 188 167 140
6 21 88 188 167 140
7 21 88 188 167 140
11 -14 61 188 167 140
-21 -6 45 188 167 140
-21 -22 16 188 167 140
11 19 58 118 100 86
-12 -5 55 188 167 140
-11 -5 55 188 167 140
-10 -5 55 188 167 140
-9 -5 55 188 167 140
-8 -5 55 188 167 140
-7 -5 55 188 167 140
-6 -5 55 188 167 140
-5 -5 55 188 167 140
8 21 88 188 167 140
-12 -28 37 188 167 140
-13 -28 38 188 167 140
-12 -28 38 188 167 140
-13 -28 39 188 167 140
-12 -28 39 188 167 140
-5 -28 16 188 167 140
-4 -28 16 188 167 140
-7 -19 94 188 167 140
35 -7 5 188 167 140
-36 -6 5 188 167 140
17 23 120 188 167 140
-10 -19 94 188 167 140
11 -12 76 118 100 86
-21 -23 16 188 167 140
11 9 67 118 100 86
-15 12 31 188 167 140
-14 12 31 188 167 140
-13 12 31 188 167 140
-20 13 31 188 167 140
-19 13 31 188 167 140
-18 13 31 188 167 140
-17 13 31 188 167 140
11 -5 55 188 167 140
9 21 88 188 167 140
25 11 79 188 167 140
16 -13 95 188 167 140
-5 -11 76 188 167 140
11 25 33 188 167 140
6 -20 36 118 100 86
10 -13 81 188 167 140
19 -16 35 188 167 140
9 29 47 188 167 140
-28 -4 16 188 167 140
-31 -36 7 188 167 140
-27 -23 79 188 167 140
11 20 45 118 100 86
12 20 45 118 100 86
13 20 45 188 167 140
14 20 45 118 100 86
15 20 45 118 100 86
16 20 45 118 100 86
17 20 45 118 100 86
18 20 45 188 167 140
19 20 45 118 100 86
20 20 45 118 100 86
21 20 45 188 167 140
22 20 45 118 100 86
23 20 45 118 100 86
24 20 45 118 100 86
25 20 45 118 100 86
26 20 45 188 167 140
10 21 88 188 167 140
-21 -24 16 188 167 140
11 10 66 188 167 140
11 -11 76 188 167 140
24 12 79 188 167 140
23 13 79 188 167 140
22 14 79 188 167 140
21 15 79 188 167 140
20 16 79 188 167 140
19 8 32 118 100 86
11 10 68 188 167 140
3 -25 47 188 167 140
3 -25 53 188 167 140
21 20 48 118 100 86
21 20 49 118 100 86
21 20 50 188 167 140
21 20 51 188 167 140
21 20 52 188 167 140
-21 -25 16 188 167 140
11 11 65 118 100 86
-5 -10 76 188 167 140
-12 -36 1 188 167 140
28 25 64 188 167 140
4 22 88 188 167 140
-4 -20 35 118 100 86
2 -20 63 118 100 86
-5 -20 35 118 100 86
-6 -20 35 188 167 140
-7 -20 35 118 100 86
35 -6 5 188 167 140
-36 -5 5 188 167 140
-8 -20 35 188 167 140
-9 -20 35 188 167 140
-10 -20 35 118 100 86
11 -10 76 118 100 86
11 11 69 118 100 86
11 -20 52 118 100 86
20 -9 47 188 167 140
-21 -26 16 188 167 140
11 12 64 188 167 140
10 26 49 188 167 140
28 24 64 188 167 140
-13 -36 0 188 167 140
25 -3 50 188 167 140
5 22 88 188 167 140
6 22 88 188 167 140
22 14 59 188 167 140
11 21 46 118 100 86
11 6 43 118 100 86
11 16 30 188 167 140
-28 -35 55 188 167 140
11 12 70 118 100 86
11 -5 33 118 100 86
9 -4 79 188 167 140
11 -12 46 118 100 86
-13 -28 41 188 167 140
-14 -28 41 188 167 140
-15 -28 41 188 167 140
-16 -28 41 188 167 140
-17 -28 41 188 167 140
-18 -28 41 188 167 140
-19 -28 41 188 167 140
-20 -28 41 188 167 140
20 -12 46 188 167 140
7 22 88 188 167 140
-21 -27 16 188 167 140
11 13 63 118 100 86
12 -4 55 188 167 140
13 -4 55 188 167 140
14 -4 55 188 167 140
15 -4 55 188 167 140
16 -4 55 188 167 140
17 -4 55 188 167 140
18 -4 55 188 167 140
19 -4 55 188 167 140
8 22 88 188 167 140
-5 -9 76 188 167 140
10 29 47 188 167 140
-28 -5 16 188 167 140
9 22 88 188 167 140
19 16 30 188 167 140
19 16 28 188 167 140
4 -21 74 188 167 140
11 -9 76 188 167 140
-21 -28 16 188 167 140
-22 -28 16 188 167 140
-23 -28 16 188 167 140
-24 -28 16 188 167 140
-25 -28 16 188 167 140
-26 -28 16 188 167 140
-27 -28 16 188 167 140
11 13 71 118 100 86
-5 -8 76 188 167 140
-36 -22 75 188 167 140
11 14 62 188 167 140
11 -18 59 118 100 86
11 29 47 188 167 140
-28 -6 16 188 167 140
-36 -36 6 188 167 140
11 11 39 188 167 140
11 22 82 118 100 86
35 -5 5 188 167 140
-36 -4 5 188 167 140
11 23 82 118 100 86
11 24 82 118 100 86
11 25 82 118 100 86
11 26 82 188 167 140
9 -13 81 188 167 140
8 -13 81 188 167 140
11 -8 76 188 167 140
19 0 58 188 167 140
16 0 58 188 167 140
15 0 58 188 167 140
-27 -11 31 188 167 140
-11 -20 35 188 167 140
4 25 50 188 167 140
12 11 39 188 167 140
13 11 39 188 167 140
14 11 39 188 167 140
15 11 39 188 167 140
16 11 39 188 167 140
17 11 39 188 167 140
18 11 39 188 167 140
19 11 39 188 167 140
5 25 50 188 167 140
-30 -22 14 188 167 140
-26 -11 31 188 167 140
-5 -7 76 188 167 140
7 -13 81 188 167 140
11 15 61 118 100 86
6 -13 81 188 167 140
5 -13 81 188 167 140
4 -13 81 188 167 140
3 -13 81 188 167 140
2 -13 81 188 167 140
1 -13 81 188 167 140
11 -7 76 118 100 86
-18 -28 85 188 167 140
19 -4 47 188 167 140
16 1 95 188 167 140
12 26 105 188 167 140
18 25 105 188 167 140
-16 -28 69 188 167 140
-17 -28 69 188 167 140
26 11 79 188 167 140
25 12 79 188 167 140
24 13 79 188 167 140
23 14 79 188 167 140
22 15 79 188 167 140
21 16 79 188 167 140
26 1 49 188 167 140
16 10 63 188 167 140
4 30 47 188 167 140
-28 -12 33 188 167 140
-30 -36 6 188 167 140
11 17 42 118 100 86
-5 -6 76 188 167 140
-30 -23 14 188 167 140
3 -21 49 188 167 140
14 22 120 188 167 140
15 22 120 188 167 140
16 22 120 188 167 140
17 22 120 188 167 140
0 -13 81 188 167 140
-1 -13 81 188 167 140
-30 -24 14 188 167 140
-30 -25 14 188 167 140
11 -6 76 188 167 140
-28 -5 76 188 167 140
-27 -5 76 188 167 140
-26 -5 76 188 167 140
20 17 79 188 167 140
-28 -29 15 188 167 140
35 -4 5 188 167 140
-36 -3 5 188 167 140
6 25 50 188 167 140
16 11 63 188 167 140
16 4 56 188 167 140
21 20 53 188 167 140
21 20 54 118 100 86
10 22 88 188 167 140
4 23 88 188 167 140
5 23 88 188 167 140
6 23 88 188 167 140
7 23 88 188 167 140
-25 -5 76 188 167 140
-24 -5 76 188 167 140
-23 -5 76 188 167 140
-22 -5 76 188 167 140
-21 -5 76 188 167 140
-20 -5 76 188 167 140
-19 -5 76 188 167 140
-18 -5 76 188 167 140
7 25 50 188 167 140
-25 -11 31 188 167 140
-24 -11 31 188 167 140
12 -3 63 188 167 140
13 -3 63 188 167 140
14 -3 63 188 167 140
15 -3 63 188 167 140
16 -3 63 188 167 140
17 -3 63 188 167 140
18 -3 63 188 167 140
19 -3 63 188 167 140
11 20 39 188 167 140
-29 -36 5 188 167 140
-17 -12 31 118 100 86
5 30 47 188 167 140
26 0 49 188 167 140
16 12 63 188 167 140
8 23 88 188 167 140
9 23 88 188 167 140
10 23 88 188 167 140
4 24 88 188 167 140
5 24 88 188 167 140
6 24 88 188 167 140
7 24 88 188 167 140
-17 -5 76 188 167 140
-16 -5 76 188 167 140
-15 -5 76 188 167 140
-14 -5 76 188 167 140
-13 -5 76 188 167 140
-12 -5 76 188 167 140
-11 -5 76 188 167 140
-10 -5 76 188 167 140
3 -21 51 188 167 140
-9 -5 76 188 167 140
-8 -5 76 188 167 140
-7 -5 76 188 167 140
-6 -5 76 188 167 140
-5 -5 76 188 167 140
-5 -8 50 188 167 140
5 -2 77 188 167 140
8 24 88 188 167 140
-16 13 31 188 167 140
-15 13 31 188 167 140
-14 13 31 188 167 140
-13 13 31 188 167 140
-20 14 31 188 167 140
-19 14 31 188 167 140
-18 14 31 188 167 140
16 5 56 188 167 140
16 13 63 188 167 140
11 -5 76 118 100 86
11 -28 23 188 167 140
35 -3 5 188 167 140
-36 -2 5 188 167 140
12 -28 22 188 167 140
11 -28 22 188 167 140
12 -28 21 188 167 140
11 -28 21 188 167 140
12 -28 20 188 167 140
11 -28 20 188 167 140
12 -28 19 188 167 140
11 -28 19 188 167 140
12 -28 18 188 167 140
11 -28 18 188 167 140
-18 -12 31 118 100 86
-19 -12 31 118 100 86
-20 -12 31 188 167 140
-2 -13 81 188 167 140
-3 -13 81 188 167 140
-4 -13 81 188 167 140
-5 -13 81 188 167 140
-6 -13 81 188 167 140
-18 -28 69 188 167 140
-19 -28 69 188 167 140
-19 -20 96 188 167 140
26 -1 49 188 167 140
3 -22 48 188 167 140
16 6 56 188 167 140
16 14 63 188 167 140
16 7 56 188 167 140
-7 -13 81 188 167 140
-8 -13 81 188 167 140
-28 -12 31 188 167 140
12 -28 17 188 167 140
11 -28 17 188 167 140
12 -28 16 188 167 140
11 -28 16 188 167 140
-36 4 8 188 167 140
-36 5 8 188 167 140
-36 11 9 188 167 140
-36 12 9 188 167 140
-36 10 8 188 167 140
-36 11 8 188 167 140
-36 12 8 188 167 140
9 24 88 188 167 140
18 -13 95 188 167 140
18 1 95 188 167 140
26 12 79 188 167 140
25 13 79 188 167 140
24 14 79 188 167 140
23 15 79 188 167 140
22 16 79 188 167 140
21 17 79 188 167 140
16 15 63 188 167 140
8 25 50 188 167 140
-23 -11 31 188 167 140
20 18 79 188 167 140
-9 -13 81 188 167 140
-10 -13 81 188 167 140
-11 -13 81 188 167 140
-36 -18 42 188 167 140
26 -2 49 188 167 140
3 -22 52 188 167 140
9 25 50 188 167 140
-30 -26 14 188 167 140
-22 -11 31 188 167 140
12 -2 63 188 167 140
13 -2 63 188 167 140
14 -2 63 188 167 140
15 -2 63 188 167 140
16 8 56 188 167 140
16 16 63 188 167 140
-12 -13 81 188 167 140
19 -20 33 118 100 86
35 -2 5 188 167 140
-36 -1 5 188 167 140
18 -20 33 118 100 86
17 -20 33 188 167 140
-36 13 8 188 167 140
-36 19 9 188 167 140
-36 20 9 188 167 140
-36 18 8 188 167 140
-36 19 8 188 167 140
-36 20 8 188 167 140
-36 21 8 188 167 140
-36 27 9 188 167 140
-36 28 9 188 167 140
-36 26 8 188 167 140
-36 27 8 188 167 140
16 -2 63 188 167 140
17 -2 63 188 167 140
18 -2 63 188 167 140
19 -2 63 188 167 140
14 26 94 188 167 140
14 26 93 188 167 140
14 26 92 188 167 140
14 26 91 188 167 140
14 26 90 188 167 140
14 26 89 188 167 140
16 -20 33 188 167 140
15 -20 33 188 167 140
14 -20 33 188 167 140
13 -20 33 118 100 86
12 -20 33 118 100 86
11 -20 33 118 100 86
10 -20 33 118 100 86
-13 -13 81 188 167 140
16 9 56 188 167 140
9 -20 33 188 167 140
8 -20 33 188 167 140
7 -20 33 188 167 140
6 -36 2 188 167 140
6 -20 33 188 167 140
-36 28 8 188 167 140
-36 29 8 188 167 140
-29 35 9 188 167 140
-28 35 9 188 167 140
-30 35 8 188 167 140
-29 35 8 188 167 140
-28 35 8 188 167 140
-27 35 8 188 167 140
-21 35 9 188 167 140
-20 35 9 188 167 140
-22 35 8 188 167 140
-14 -13 81 188 167 140
-15 -13 81 188 167 140
-16 -13 81 188 167 140
-17 -13 81 188 167 140
-18 -13 81 188 167 140
-19 -13 81 188 167 140
26 -3 49 188 167 140
3 -23 47 188 167 140
5 -20 33 118 100 86
4 -20 33 118 100 86
17 -14 95 188 167 140
11 0 43 188 167 140
-28 -36 4 188 167 140
-20 -13 81 188 167 140
16 17 63 188 167 140
-21 -13 81 188 167 140
-22 -13 81 188 167 140
-23 -13 81 188 167 140
-24 -13 81 188 167 140
-25 -13 81 188 167 140
-26 -13 81 188 167 140
-27 -13 81 188 167 140
35 -1 5 188 167 140
-36 0 5 188 167 140
12 20 102 188 167 140
13 20 102 188 167 140
14 20 102 188 167 140
12 11 80 188 167 140
-36 -17 42 188 167 140
-17 14 31 188 167 140
-16 14 31 188 167 140
-15 14 31 188 167 140
10 25 50 188 167 140
11 -4 33 118 100 86
-21 -11 31 188 167 140
19 -18 29 118 100 86
6 30 47 188 167 140
17 2 95 188 167 140
-27 -29 15 188 167 140
12 10 80 188 167 140
12 -10 90 188 167 140
12 -10 91 188 167 140
12 -10 92 188 167 140
12 -10 93 188 167 140
12 -10 94 188 167 140
13 19 96 188 167 140
26 13 79 188 167 140
25 14 79 188 167 140
24 15 79 188 167 140
23 16 79 188 167 140
22 17 79 188 167 140
21 18 79 188 167 140
20 19 79 188 167 140
12 -2 88 188 167 140
12 -2 89 188 167 140
11 -5 32 188 167 140
-21 35 8 188 167 140
-20 35 8 188 167 140
-19 35 8 188 167 140
26 -4 49 188 167 140
25 -4 49 188 167 140
24 -4 49 188 167 140
23 -4 49 188 167 140
22 -4 49 188 167 140
21 -4 49 188 167 140
12 9 80 188 167 140
16 10 56 188 167 140
7 30 47 188 167 140
-27 27 16 188 167 140
-27 -36 3 188 167 140
11 18 42 188 167 140
12 8 80 188 167 140
3 -23 53 188 167 140
-26 -5 55 188 167 140
-25 -5 55 188 167 140
12 -2 90 188 167 140
19 -1 58 188 167 140
17 -1 58 188 167 140
14 -1 58 188 167 140
16 18 63 188 167 140
15 19 56 188 167 140
12 7 80 188 167 140
-24 -5 55 188 167 140
-23 -5 55 188 167 140
-22 -5 55 188 167 140
-21 -5 55 188 167 140
-5 35 9 188 167 140
-4 35 9 188 167 140
12 6 80 188 167 140
15 26 95 188 167 140
-36 -16 42 188 167 140
4 -26 75 188 167 140
11 -4 36 118 100 86
11 16 60 188 167 140
35 0 5 188 167 140
-36 1 5 188 167 140
-26 -26 79 188 167 140
4 24 51 188 167 140
15 26 88 188 167 140
14 25 94 188 167 140
14 25 93 188 167 140
14 25 92 188 167 140
14 25 91 188 167 140
14 25 90 188 167 140
14 25 89 188 167 140
19 -5 32 188 167 140
-16 12 55 158 164 110
20 3 44 188 167 140
-6 35 8 188 167 140
-5 35 8 188 167 140
-4 35 8 188 167 140
-3 35 8 188 167 140
3 35 9 188 167 140
4 35 9 188 167 140
2 35 8 188 167 140
3 35 8 188 167 140
4 35 8 188 167 140
5 35 8 188 167 140
11 35 9 188 167 140
16 11 56 188 167 140
12 5 80 188 167 140
16 19 63 188 167 140
15 18 56 188 167 140
12 4 80 188 167 140
18 -13 80 188 167 140
11 17 59 118 100 86
11 -17 59 188 167 140
-23 -6 34 188 167 140
3 -20 33 118 100 86
2 -20 33 118 100 86
1 -20 33 188 167 140
0 -20 33 188 167 140
-1 -20 33 188 167 140
8 30 47 188 167 140
-28 26 16 188 167 140
5 24 51 188 167 140
-30 -27 14 188 167 140
11 12 83 118 100 86
17 -13 80 188 167 140
9 27 15 118 100 86
8 27 15 118 100 86
7 27 15 118 100 86
6 27 15 118 100 86
1 27 15 118 100 86
0 27 15 118 100 86
-1 27 15 118 100 86
-2 27 15 118 100 86
-7 27 15 118 100 86
-8 27 15 118 100 86
-9 27 15 118 100 86
-10 27 15 118 100 86
-15 27 15 118 100 86
-16 27 15 118 100 86
-17 27 15 118 100 86
-18 27 15 118 100 86
-23 27 15 118 100 86
-24 27 15 118 100 86
-25 27 15 118 100 86
-26 27 15 118 100 86
16 -13 80 188 167 140
-28 -13 31 188 167 140
15 -13 80 188 167 140
14 -13 80 188 167 140
13 -13 80 188 167 140
12 -13 80 188 167 140
11 -13 80 188 167 140
35 1 5 188 167 140
-36 2 5 188 167 140
-20 -12 33 118 100 86
-19 -12 33 118 100 86
-18 -12 33 188 167 140
10 26 15 118 100 86
9 26 15 188 167 140
8 26 15 188 167 140
7 26 15 188 167 140
6 26 15 188 167 140
5 26 15 118 100 86
4 26 15 118 100 86
3 26 15 118 100 86
2 26 15 118 100 86
1 26 15 188 167 140
0 26 15 188 167 140
-1 26 15 188 167 140
-2 26 15 188 167 140
-3 26 15 118 100 86
-4 26 15 118 100 86
-5 26 15 118 100 86
-6 26 15 118 100 86
-7 26 15 188 167 140
-8 26 15 188 167 140
-9 26 15 188 167 140
-10 26 15 188 167 140
-11 26 15 118 100 86
-12 26 15 118 100 86
-13 26 15 118 100 86
-14 26 15 118 100 86
-15 26 15 188 167 140
-16 26 15 188 167 140
-17 26 15 188 167 140
-18 26 15 188 167 140
-19 26 15 118 100 86
-20 26 15 118 100 86
-21 26 15 118 100 86
-22 26 15 118 100 86
-23 26 15 188 167 140
-24 26 15 188 167 140
-25 26 15 188 167 140
-26 26 15 188 167 140
-27 26 15 118 100 86
12 35 9 188 167 140
10 35 8 188 167 140
11 35 8 188 167 140
12 35 8 188 167 140
13 35 8 188 167 140
19 35 9 188 167 140
20 35 9 188 167 140
18 35 8 188 167 140
19 35 8 188 167 140
20 35 8 188 167 140
21 35 8 188 167 140
-17 -12 33 188 167 140
10 25 15 188 167 140
9 25 15 118 100 86
8 25 15 118 100 86
7 25 15 118 100 86
6 25 15 118 100 86
5 25 15 188 167 140
4 25 15 118 100 86
3 25 15 118 100 86
2 25 15 188 167 140
1 25 15 118 100 86
0 25 15 118 100 86
-1 25 15 118 100 86
-2 25 15 118 100 86
-3 25 15 188 167 140
-4 25 15 118 100 86
-5 25 15 118 100 86
-6 25 15 188 167 140
35 2 5 188 167 140
-36 3 5 188 167 140
-7 25 15 118 100 86
-8 25 15 118 100 86
-9 25 15 118 100 86
-10 25 15 118 100 86
-11 25 15 188 167 140
-12 25 15 118 100 86
-13 25 15 118 100 86
-14 25 15 188 167 140
-15 25 15 118 100 86
-16 25 15 118 100 86
-17 25 15 118 100 86
-18 25 15 118 100 86
-19 25 15 188 167 140
-20 25 15 118 100 86
-21 25 15 118 100 86
-22 25 15 188 167 140
-23 25 15 118 100 86
-24 25 15 118 100 86
-25 25 15 118 100 86
-26 25 15 118 100 86
-27 25 15 188 167 140
-28 25 15 118 100 86
-28 -13 34 188 167 140
10 -13 80 188 167 140
6 24 51 188 167 140
-29 -28 14 188 167 140
11 13 83 188 167 140
-21 -9 40 188 167 140
10 24 15 188 167 140
9 24 15 118 100 86
8 24 15 188 167 140
7 24 15 188 167 140
6 24 15 118 100 86
5 24 15 188 167 140
4 24 15 118 100 86
3 24 15 118 100 86
2 24 15 188 167 140
1 24 15 118 100 86
0 24 15 188 167 140
-1 24 15 188 167 140
-2 24 15 118 100 86
-3 24 15 188 167 140
-4 24 15 118 100 86
-5 24 15 118 100 86
-6 24 15 188 167 140
-7 24 15 118 100 86
-8 24 15 188 167 140
-9 24 15 188 167 140
-10 24 15 118 100 86
-11 24 15 188 167 140
-12 24 15 118 100 86
-13 24 15 118 100 86
-14 24 15 188 167 140
-15 24 15 118 100 86
-16 24 15 188 167 140
-17 24 15 188 167 140
-18 24 15 118 100 86
-19 24 15 188 167 140
-20 24 15 118 100 86
-21 24 15 118 100 86
-22 24 15 188 167 140
-23 24 15 118 100 86
-24 24 15 188 167 140
-25 24 15 188 167 140
-26 24 15 118 100 86
-27 24 15 188 167 140
-28 24 15 118 100 86
10 24 88 188 167 140
10 23 15 188 167 140
9 23 15 118 100 86
35 3 5 188 167 140
-36 4 5 188 167 140
8 23 15 188 167 140
7 23 15 188 167 140
6 23 15 118 100 86
5 23 15 188 167 140
4 23 15 118 100 86
3 23 15 118 100 86
2 23 15 188 167 140
1 23 15 118 100 86
0 23 15 188 167 140
-1 23 15 188 167 140
-2 23 15 118 100 86
-3 23 15 188 167 140
-4 23 15 118 100 86
-5 23 15 118 100 86
-6 23 15 188 167 140
-7 23 15 118 100 86
-8 23 15 188 167 140
-9 23 15 188 167 140
-10 23 15 118 100 86
-11 23 15 188 167 140
-12 23 15 118 100 86
-13 23 15 118 100 86
-14 23 15 188 167 140
-15 23 15 118 100 86
-16 23 15 188 167 140
-17 23 15 188 167 140
-18 23 15 118 100 86
-19 23 15 188 167 140
-20 23 15 118 100 86
-21 23 15 118 100 86
-22 23 15 188 167 140
-23 23 15 118 100 86
-24 23 15 188 167 140
-25 23 15 188 167 140
-26 23 15 118 100 86
-27 23 15 188 167 140
-28 23 15 118 100 86
15 20 102 188 167 140
16 20 102 188 167 140
17 20 102 188 167 140
18 20 102 188 167 140
12 21 102 188 167 140
16 26 95 188 167 140
11 25 41 188 167 140
10 22 15 188 167 140
9 22 15 118 100 86
8 22 15 118 100 86
7 22 15 118 100 86
6 22 15 118 100 86
5 22 15 188 167 140
4 22 15 118 100 86
3 22 15 118 100 86
2 22 15 188 167 140
1 22 15 118 100 86
0 22 15 118 100 86
-1 22 15 118 100 86
-2 22 15 118 100 86
-3 22 15 188 167 140
-4 22 15 118 100 86
-5 22 15 118 100 86
-6 22 15 188 167 140
-7 22 15 118 100 86
-8 22 15 118 100 86
-9 22 15 118 100 86
-10 22 15 118 100 86
-11 22 15 188 167 140
-12 22 15 118 100 86
-13 22 15 118 100 86
-14 22 15 188 167 140
-15 22 15 118 100 86
35 4 5 188 167 140
-36 5 5 188 167 140
-16 22 15 118 100 86
-17 22 15 118 100 86
-18 22 15 118 100 86
-19 22 15 188 167 140
-20 22 15 118 100 86
-21 22 15 118 100 86
-22 22 15 188 167 140
-23 22 15 118 100 86
-24 22 15 118 100 86
-25 22 15 118 100 86
-26 22 15 118 100 86
-27 22 15 188 167 140
-28 22 15 118 100 86
12 -14 39 188 167 140
27 35 9 188 167 140
28 35 9 188 167 140
26 35 8 188 167 140
27 35 8 188 167 140
28 35 8 188 167 140
29 35 8 188 167 140
35 12 9 188 167 140
35 11 9 188 167 140
35 13 8 188 167 140
35 12 8 188 167 140
35 11 8 188 167 140
10 21 15 118 100 86
9 21 15 188 167 140
8 21 15 188 167 140
7 21 15 188 167 140
6 21 15 188 167 140
5 21 15 118 100 86
4 21 15 118 100 86
3 21 15 118 100 86
2 21 15 118 100 86
1 21 15 188 167 140
0 21 15 188 167 140
-1 21 15 188 167 140
-2 21 15 188 167 140
-3 21 15 118 100 86
-4 21 15 118 100 86
-5 21 15 118 100 86
-6 21 15 118 100 86
-7 21 15 188 167 140
-8 21 15 188 167 140
-9 21 15 188 167 140
-10 21 15 188 167 140
-11 21 15 118 100 86
-12 21 15 118 100 86
-13 21 15 118 100 86
-14 21 15 118 100 86
-15 21 15 188 167 140
-16 21 15 188 167 140
-17 21 15 188 167 140
-18 21 15 188 167 140
-19 21 15 118 100 86
-20 21 15 118 100 86
-21 21 15 118 100 86
-22 21 15 118 100 86
-23 21 15 188 167 140
-24 21 15 188 167 140
-25 21 15 188 167 140
-26 21 15 188 167 140
-27 21 15 118 100 86
7 24 51 188 167 140
4 3 72 188 167 140
-30 -28 14 188 167 140
11 14 83 118 100 86
12 3 55 188 167 140
13 3 55 188 167 140
14 3 55 188 167 140
35 5 5 188 167 140
-36 6 5 188 167 140
15 3 55 188 167 140
16 3 55 188 167 140
17 3 55 188 167 140
18 3 55 188 167 140
19 3 55 188 167 140
10 20 15 118 100 86
9 20 15 118 100 86
8 20 15 118 100 86
7 20 15 118 100 86
6 20 15 118 100 86
5 20 15 118 100 86
4 20 15 188 167 140
3 20 15 188 167 140
2 20 15 118 100 86
1 20 15 118 100 86
0 20 15 118 100 86
-1 20 15 118 100 86
-2 20 15 118 100 86
-3 20 15 118 100 86
-4 20 15 188 167 140
-5 20 15 188 167 140
-6 20 15 118 100 86
-7 20 15 118 100 86
-8 20 15 118 100 86
-9 20 15 118 100 86
-10 20 15 118 100 86
-11 20 15 118 100 86
-12 20 15 188 167 140
-13 20 15 188 167 140
-14 20 15 118 100 86
-15 20 15 118 100 86
-16 20 15 118 100 86
-17 20 15 118 100 86
-18 20 15 118 100 86
-19 20 15 118 100 86
-20 20 15 188 167 140
-21 20 15 188 167 140
-22 20 15 118 100 86
-23 20 15 118 100 86
-24 20 15 118 100 86
-25 20 15 118 100 86
-26 20 15 118 100 86
-27 20 15 118 100 86
-36 -15 42 188 167 140
16 26 88 188 167 140
15 25 95 188 167 140
26 19 15 188 167 140
25 19 15 188 167 140
24 19 15 188 167 140
23 19 15 188 167 140
22 19 15 188 167 140
21 19 15 188 167 140
20 19 15 188 167 140
10 19 15 118 100 86
9 19 15 118 100 86
8 19 15 118 100 86
7 19 15 118 100 86
6 19 15 118 100 86
5 19 15 118 100 86
4 19 15 188 167 140
3 19 15 188 167 140
2 19 15 118 100 86
1 19 15 118 100 86
0 19 15 118 100 86
-1 19 15 118 100 86
-2 19 15 118 100 86
-3 19 15 118 100 86
-4 19 15 188 167 140
-5 19 15 188 167 140
-6 19 15 118 100 86
35 6 5 188 167 140
-36 7 5 188 167 140
-7 19 15 118 100 86
-8 19 15 118 100 86
-9 19 15 118 100 86
-10 19 15 118 100 86
-11 19 15 118 100 86
-12 19 15 188 167 140
-13 19 15 188 167 140
-14 19 15 118 100 86
-15 19 15 118 100 86
-16 19 15 118 100 86
-17 19 15 118 100 86
-18 19 15 118 100 86
-19 19 15 118 100 86
-20 19 15 188 167 140
-21 19 15 188 167 140
-22 19 15 118 100 86
-23 19 15 118 100 86
-24 19 15 118 100 86
-25 19 15 118 100 86
-26 19 15 118 100 86
-27 19 15 118 100 86
15 25 88 188 167 140
14 24 94 188 167 140
14 24 93 188 167 140
14 24 92 188 167 140
14 24 91 188 167 140
14 24 90 188 167 140
14 24 89 188 167 140
13 -14 39 188 167 140
14 -14 39 188 167 140
15 -14 39 188 167 140
16 -14 39 188 167 140
4 25 88 188 167 140
26 18 15 188 167 140
25 18 15 188 167 140
24 18 15 188 167 140
23 18 15 188 167 140
22 18 15 188 167 140
21 18 15 188 167 140
20 18 15 188 167 140
10 18 15 118 100 86
9 18 15 188 167 140
8 18 15 188 167 140
7 18 15 188 167 140
6 18 15 188 167 140
5 18 15 118 100 86
4 18 15 118 100 86
3 18 15 118 100 86
2 18 15 118 100 86
1 18 15 188 167 140
0 18 15 188 167 140
-1 18 15 188 167 140
-2 18 15 188 167 140
-3 18 15 118 100 86
-4 18 15 118 100 86
-5 18 15 118 100 86
-6 18 15 118 100 86
-7 18 15 188 167 140
-8 18 15 188 167 140
-9 18 15 188 167 140
-10 18 15 188 167 140
-11 18 15 118 100 86
-12 18 15 118 100 86
-13 18 15 118 100 86
-14 18 15 118 100 86
-15 18 15 188 167 140
-16 18 15 188 167 140
-17 18 15 188 167 140
-18 18 15 188 167 140
-19 18 15 118 100 86
35 7 5 188 167 140
-36 8 5 188 167 140
-20 18 15 118 100 86
-21 18 15 118 100 86
-22 18 15 118 100 86
-23 18 15 188 167 140
-24 18 15 188 167 140
-25 18 15 188 167 140
-26 18 15 188 167 140
-27 18 15 118 100 86
17 -14 39 188 167 140
18 -14 39 188 167 140
19 -14 39 188 167 140
35 10 8 188 167 140
35 4 9 188 167 140
35 3 9 188 167 140
35 5 8 188 167 140
-29 -36 0 188 167 140
11 24 22 188 167 140
5 25 88 188 167 140
26 17 15 188 167 140
25 17 15 188 167 140
24 17 15 188 167 140
23 17 15 188 167 140
22 17 15 188 167 140
21 17 15 188 167 140
20 17 15 188 167 140
10 17 15 188 167 140
9 17 15 118 100 86
8 17 15 118 100 86
7 17 15 118 100 86
6 17 15 118 100 86
5 17 15 188 167 140
4 17 15 118 100 86
3 17 15 118 100 86
2 17 15 188 167 140
1 17 15 118 100 86
0 17 15 118 100 86
-1 17 15 118 100 86
-2 17 15 118 100 86
-3 17 15 188 167 140
-4 17 15 118 100 86
-5 17 15 118 100 86
-6 17 15 188 167 140
-7 17 15 118 100 86
-8 17 15 118 100 86
-9 17 15 118 100 86
-10 17 15 118 100 86
-11 17 15 188 167 140
-12 17 15 118 100 86
-13 17 15 118 100 86
-14 17 15 188 167 140
-15 17 15 118 100 86
-16 17 15 118 100 86
-17 17 15 118 100 86
-18 17 15 118 100 86
-19 17 15 188 167 140
-20 17 15 118 100 86
-21 17 15 118 100 86
-22 17 15 188 167 140
-23 17 15 118 100 86
-24 17 15 118 100 86
-25 17 15 118 100 86
-26 17 15 118 100 86
-27 17 15 188 167 140
-28 17 15 118 100 86
35 4 8 188 167 140
35 3 8 188 167 140
35 2 8 188 167 140
35 -4 9 188 167 140
35 -5 9 188 167 140
11 21 29 188 167 140
35 8 5 188 167 140
-36 9 5 188 167 140
11 22 29 118 100 86
11 23 29 118 100 86
11 24 29 118 100 86
11 25 29 118 100 86
11 26 29 188 167 140
9 -13 80 188 167 140
6 25 88 188 167 140
26 16 15 188 167 140
25 16 15 188 167 140
24 16 15 188 167 140
23 16 15 188 167 140
22 16 15 188 167 140
21 16 15 188 167 140
20 16 15 188 167 140
10 16 15 188 167 140
9 16 15 118 100 86
8 16 15 188 167 140
7 16 15 188 167 140
6 16 15 118 100 86
5 16 15 188 167 140
4 16 15 118 100 86
3 16 15 118 100 86
2 16 15 188 167 140
1 16 15 118 100 86
0 16 15 188 167 140
-1 16 15 188 167 140
-2 16 15 118 100 86
-3 16 15 188 167 140
-4 16 15 118 100 86
-5 16 15 118 100 86
-6 16 15 188 167 140
-7 16 15 118 100 86
-8 16 15 188 167 140
-9 16 15 188 167 140
-10 16 15 118 100 86
-11 16 15 188 167 140
-12 16 15 118 100 86
-13 16 15 118 100 86
-14 16 15 188 167 140
-15 16 15 118 100 86
-16 16 15 188 167 140
-17 16 15 188 167 140
-18 16 15 118 100 86
-19 16 15 188 167 140
-20 16 15 118 100 86
-21 16 15 118 100 86
-22 16 15 188 167 140
-23 16 15 118 100 86
-24 16 15 188 167 140
-25 16 15 188 167 140
-26 16 15 118 100 86
-27 16 15 188 167 140
-28 16 15 118 100 86
35 -3 8 188 167 140
35 -4 8 188 167 140
7 25 88 188 167 140
26 15 15 188 167 140
25 15 15 188 167 140
24 15 15 188 167 140
23 15 15 188 167 140
22 15 15 188 167 140
21 15 15 188 167 140
20 15 15 188 167 140
10 15 15 188 167 140
9 15 15 118 100 86
8 15 15 188 167 140
7 15 15 188 167 140
6 15 15 118 100 86
5 15 15 188 167 140
4 15 15 118 100 86
35 9 5 188 167 140
-36 10 5 188 167 140
3 15 15 118 100 86
2 15 15 188 167 140
1 15 15 118 100 86
0 15 15 188 167 140
-1 15 15 188 167 140
-2 15 15 118 100 86
-3 15 15 188 167 140
-4 15 15 118 100 86
-5 15 15 118 100 86
-6 15 15 188 167 140
-7 15 15 118 100 86
-8 15 15 188 167 140
-9 15 15 188 167 140
-10 15 15 118 100 86
-11 15 15 188 167 140
-12 15 15 118 100 86
-13 15 15 118 100 86
-14 15 15 188 167 140
-15 15 15 118 100 86
-16 15 15 188 167 140
-17 15 15 188 167 140
-18 15 15 118 100 86
-19 15 15 188 167 140
-20 15 15 118 100 86
-21 15 15 118 100 86
-22 15 15 188 167 140
-23 15 15 118 100 86
-24 15 15 188 167 140
-25 15 15 188 167 140
-26 15 15 118 100 86
-27 15 15 188 167 140
-28 15 15 118 100 86
17 26 94 188 167 140
17 26 93 188 167 140
17 26 92 188 167 140
35 -5 8 188 167 140
8 25 88 188 167 140
26 14 15 188 167 140
25 14 15 188 167 140
24 14 15 188 167 140
23 14 15 188 167 140
22 14 15 188 167 140
21 14 15 188 167 140
20 14 15 188 167 140
10 14 15 188 167 140
9 14 15 118 100 86
8 14 15 118 100 86
7 14 15 118 100 86
6 14 15 118 100 86
5 14 15 188 167 140
4 14 15 118 100 86
3 14 15 118 100 86
2 14 15 188 167 140
1 14 15 118 100 86
0 14 15 118 100 86
-1 14 15 118 100 86
-2 14 15 118 100 86
-3 14 15 188 167 140
-4 14 15 118 100 86
-5 14 15 118 100 86
-6 14 15 188 167 140
-7 14 15 118 100 86
-8 14 15 118 100 86
-9 14 15 118 100 86
-10 14 15 118 100 86
-11 14 15 188 167 140
-12 14 15 118 100 86
-13 14 15 118 100 86
-14 14 15 188 167 140
-15 14 15 118 100 86
35 10 5 188 167 140
-36 11 5 188 167 140
-16 14 15 118 100 86
-17 14 15 118 100 86
-18 14 15 118 100 86
-19 14 15 188 167 140
-20 14 15 118 100 86
-21 14 15 118 100 86
-22 14 15 188 167 140
-23 14 15 118 100 86
-24 14 15 118 100 86
-25 14 15 118 100 86
-26 14 15 118 100 86
-27 14 15 188 167 140
-28 14 15 118 100 86
35 -6 8 188 167 140
35 -12 9 188 167 140
35 -13 9 188 167 140
35 -11 8 188 167 140
8 -13 80 188 167 140
35 -12 8 188 167 140
9 25 88 188 167 140
26 13 15 188 167 140
25 13 15 188 167 140
24 13 15 188 167 140
23 13 15 188 167 140
22 13 15 188 167 140
21 13 15 188 167 140
20 13 15 188 167 140
10 13 15 118 100 86
9 13 15 188 167 140
8 13 15 188 167 140
7 13 15 188 167 140
6 13 15 188 167 140
5 13 15 118 100 86
4 13 15 118 100 86
3 13 15 118 100 86
2 13 15 118 100 86
1 13 15 188 167 140
0 13 15 188 167 140
-1 13 15 188 167 140
-2 13 15 188 167 140
-3 13 15 118 100 86
-4 13 15 118 100 86
-5 13 15 118 100 86
-6 13 15 118 100 86
-7 13 15 188 167 140
-8 13 15 188 167 140
-9 13 15 188 167 140
-10 13 15 188 167 140
-11 13 15 118 100 86
-12 13 15 118 100 86
-13 13 15 118 100 86
-14 13 15 118 100 86
-15 13 15 188 167 140
-16 13 15 188 167 140
-17 13 15 188 167 140
-18 13 15 188 167 140
-19 13 15 118 100 86
-20 13 15 118 100 86
-21 13 15 118 100 86
-22 13 15 118 100 86
-23 13 15 188 167 140
-24 13 15 188 167 140
-25 13 15 188 167 140
-26 13 15 188 167 140
-27 13 15 118 100 86
11 20 30 118 100 86
11 21 30 118 100 86
11 22 30 188 167 140
11 23 30 188 167 140
11 24 30 188 167 140
35 11 5 188 167 140
-36 12 5 188 167 140
11 25 30 188 167 140
11 26 30 118 100 86
35 -13 8 188 167 140
35 -14 8 188 167 140
35 -20 9 188 167 140
35 -21 9 188 167 140
35 -19 8 188 167 140
17 26 91 188 167 140
17 26 90 188 167 140
17 26 89 188 167 140
10 25 88 188 167 140
26 12 15 188 167 140
25 12 15 188 167 140
24 12 15 188 167 140
23 12 15 188 167 140
22 12 15 188 167 140
21 12 15 188 167 140
20 12 15 188 167 140
10 12 15 118 100 86
9 12 15 118 100 86
8 12 15 118 100 86
7 12 15 118 100 86
6 12 15 118 100 86
5 12 15 118 100 86
4 12 15 188 167 140
3 12 15 188 167 140
2 12 15 118 100 86
1 12 15 118 100 86
0 12 15 118 100 86
-1 12 15 118 100 86
-2 12 15 118 100 86
-3 12 15 118 100 86
-4 12 15 188 167 140
-5 12 15 188 167 140
-6 12 15 118 100 86
-7 12 15 118 100 86
-8 12 15 118 100 86
-9 12 15 118 100 86
-10 12 15 118 100 86
-11 12 15 118 100 86
-12 12 15 188 167 140
-13 12 15 188 167 140
-14 12 15 118 100 86
-15 12 15 118 100 86
-16 12 15 118 100 86
-17 12 15 118 100 86
-18 12 15 118 100 86
-19 12 15 118 100 86
-20 12 15 188 167 140
-21 12 15 188 167 140
-22 12 15 118 100 86
-23 12 15 118 100 86
-24 12 15 118 100 86
-25 12 15 118 100 86
-26 12 15 118 100 86
-27 12 15 118 100 86
12 22 102 188 167 140
13 22 102 188 167 140
14 22 102 188 167 140
15 22 102 188 167 140
26 11 15 188 167 140
25 11 15 188 167 140
24 11 15 188 167 140
23 11 15 188 167 140
22 11 15 188 167 140
21 11 15 188 167 140
20 11 15 188 167 140
10 11 15 118 100 86
9 11 15 118 100 86
8 11 15 118 100 86
35 12 5 188 167 140
-36 13 5 188 167 140
7 11 15 118 100 86
6 11 15 118 100 86
5 11 15 118 100 86
4 11 15 188 167 140
3 11 15 188 167 140
2 11 15 118 100 86
1 11 15 118 100 86
0 11 15 118 100 86
-1 11 15 118 100 86
-2 11 15 118 100 86
-3 11 15 118 100 86
-4 11 15 188 167 140
-5 11 15 188 167 140
-6 11 15 118 100 86
-7 11 15 118 100 86
-8 11 15 118 100 86
-9 11 15 118 100 86
-10 11 15 118 100 86
-11 11 15 118 100 86
-12 11 15 188 167 140
-13 11 15 188 167 140
-14 11 15 118 100 86
-15 11 15 118 100 86
-16 11 15 118 100 86
-17 11 15 118 100 86
-18 11 15 118 100 86
-19 11 15 118 100 86
-20 11 15 188 167 140
-21 11 15 188 167 140
-22 11 15 118 100 86
-23 11 15 118 100 86
-24 11 15 118 100 86
-25 11 15 118 100 86
-26 11 15 118 100 86
-27 11 15 118 100 86
16 22 102 188 167 140
16 25 95 188 167 140
19 20 41 118 100 86
4 26 88 188 167 140
26 -17 79 188 167 140
5 26 88 188 167 140
-5 -11 61 188 167 140
6 26 88 188 167 140
26 10 15 188 167 140
25 10 15 188 167 140
24 10 15 188 167 140
23 10 15 188 167 140
22 10 15 188 167 140
21 10 15 188 167 140
20 10 15 188 167 140
10 10 15 118 100 86
9 10 15 188 167 140
8 10 15 188 167 140
7 10 15 188 167 140
6 10 15 188 167 140
5 10 15 118 100 86
4 10 15 118 100 86
3 10 15 118 100 86
2 10 15 118 100 86
1 10 15 188 167 140
0 10 15 188 167 140
-1 10 15 188 167 140
-2 10 15 188 167 140
-3 10 15 118 100 86
-4 10 15 118 100 86
-5 10 15 118 100 86
-6 10 15 118 100 86
-7 10 15 188 167 140
-8 10 15 188 167 140
-9 10 15 188 167 140
35 13 5 188 167 140
-36 14 5 188 167 140
-10 10 15 188 167 140
-11 10 15 118 100 86
-12 10 15 118 100 86
-13 10 15 118 100 86
-14 10 15 118 100 86
-15 10 15 188 167 140
-16 10 15 188 167 140
-17 10 15 188 167 140
-18 10 15 188 167 140
-19 10 15 118 100 86
-20 10 15 118 100 86
-21 10 15 118 100 86
-22 10 15 118 100 86
-23 10 15 188 167 140
-24 10 15 188 167 140
-25 10 15 188 167 140
-26 10 15 188 167 140
-27 10 15 118 100 86
11 18 58 188 167 140
35 -20 8 188 167 140
35 -21 8 188 167 140
-17 -36 6 188 167 140
35 -22 8 188 167 140
7 -13 80 188 167 140
11 20 31 188 167 140
11 21 31 118 100 86
11 22 31 118 100 86
11 23 31 118 100 86
11 24 31 118 100 86
11 25 31 118 100 86
7 26 88 188 167 140
26 9 15 188 167 140
25 9 15 188 167 140
24 9 15 188 167 140
23 9 15 188 167 140
22 9 15 188 167 140
21 9 15 188 167 140
20 9 15 188 167 140
10 9 15 188 167 140
9 9 15 118 100 86
8 9 15 118 100 86
7 9 15 118 100 86
6 9 15 118 100 86
5 9 15 188 167 140
4 9 15 118 100 86
3 9 15 118 100 86
2 9 15 188 167 140
1 9 15 118 100 86
0 9 15 118 100 86
-1 9 15 118 100 86
-2 9 15 118 100 86
-3 9 15 188 167 140
-4 9 15 118 100 86
-5 9 15 118 100 86
-6 9 15 188 167 140
-7 9 15 118 100 86
-8 9 15 118 100 86
-9 9 15 118 100 86
-10 9 15 118 100 86
-11 9 15 188 167 140
-12 9 15 118 100 86
-13 9 15 118 100 86
-14 9 15 188 167 140
-15 9 15 118 100 86
-16 9 15 118 100 86
-17 9 15 118 100 86
-18 9 15 118 100 86
-19 9 15 188 167 140
-20 9 15 118 100 86
-21 9 15 118 100 86
35 14 5 188 167 140
-36 15 5 188 167 140
-22 9 15 188 167 140
-23 9 15 118 100 86
-24 9 15 118 100 86
-25 9 15 118 100 86
-26 9 15 118 100 86
-27 9 15 188 167 140
-28 9 15 118 100 86
8 26 88 188 167 140
6 -13 80 188 167 140
5 -13 80 188 167 140
-1 -28 87 188 167 140
0 -28 87 188 167 140
1 -28 87 188 167 140
2 -28 87 188 167 140
3 -28 87 188 167 140
-36 -14 42 188 167 140
16 25 88 188 167 140
15 24 95 188 167 140
9 26 88 188 167 140
26 8 15 188 167 140
25 8 15 188 167 140
24 8 15 188 167 140
23 8 15 188 167 140
22 8 15 188 167 140
21 8 15 188 167 140
20 8 15 188 167 140
10 8 15 188 167 140
9 8 15 118 100 86
8 8 15 188 167 140
7 8 15 188 167 140
6 8 15 118 100 86
5 8 15 188 167 140
4 8 15 118 100 86
3 8 15 118 100 86
2 8 15 188 167 140
1 8 15 118 100 86
0 8 15 188 167 140
-1 8 15 188 167 140
-2 8 15 118 100 86
-3 8 15 188 167 140
-4 8 15 118 100 86
-5 8 15 118 100 86
-6 8 15 188 167 140
-7 8 15 118 100 86
-8 8 15 188 167 140
-9 8 15 188 167 140
-10 8 15 118 100 86
-11 8 15 188 167 140
-12 8 15 118 100 86
-13 8 15 118 100 86
-14 8 15 188 167 140
-15 8 15 118 100 86
-16 8 15 188 167 140
-17 8 15 188 167 140
-18 8 15 118 100 86
-19 8 15 188 167 140
-20 8 15 118 100 86
-21 8 15 118 100 86
-22 8 15 188 167 140
-23 8 15 118 100 86
-24 8 15 188 167 140
-25 8 15 188 167 140
-26 8 15 118 100 86
-27 8 15 188 167 140
-28 8 15 118 100 86
-36 -13 42 188 167 140
-35 -13 42 188 167 140
-34 -13 42 188 167 140
-33 -13 42 188 167 140
15 24 88 188 167 140
35 15 5 188 167 140
-36 16 5 188 167 140
14 23 94 188 167 140
14 23 93 188 167 140
14 23 92 188 167 140
14 23 91 188 167 140
14 23 90 188 167 140
-32 -13 42 188 167 140
10 26 88 188 167 140
26 7 15 188 167 140
25 7 15 188 167 140
24 7 15 188 167 140
23 7 15 188 167 140
22 7 15 188 167 140
21 7 15 188 167 140
20 7 15 188 167 140
10 7 15 188 167 140
9 7 15 118 100 86
8 7 15 188 167 140
7 7 15 188 167 140
6 7 15 118 100 86
5 7 15 188 167 140
4 7 15 118 100 86
3 7 15 118 100 86
2 7 15 188 167 140
1 7 15 118 100 86
0 7 15 188 167 140
-1 7 15 188 167 140
-2 7 15 118 100 86
-3 7 15 188 167 140
-4 7 15 118 100 86
-5 7 15 118 100 86
-6 7 15 188 167 140
-7 7 15 118 100 86
-8 7 15 188 167 140
-9 7 15 188 167 140
-10 7 15 118 100 86
-11 7 15 188 167 140
-12 7 15 118 100 86
-13 7 15 118 100 86
-14 7 15 188 167 140
-15 7 15 118 100 86
-16 7 15 188 167 140
-17 7 15 188 167 140
-18 7 15 118 100 86
-19 7 15 188 167 140
-20 7 15 118 100 86
-21 7 15 118 100 86
-22 7 15 188 167 140
-23 7 15 118 100 86
-24 7 15 188 167 140
-25 7 15 188 167 140
-26 7 15 118 100 86
-27 7 15 188 167 140
-28 7 15 118 100 86
-2 -20 33 188 167 140
-3 -20 33 118 100 86
-4 -20 33 118 100 86
4 -13 80 188 167 140
31 22 64 188 167 140
20 20 41 118 100 86
26 6 15 188 167 140
25 6 15 188 167 140
24 6 15 188 167 140
23 6 15 188 167 140
22 6 15 188 167 140
21 6 15 188 167 140
20 6 15 188 167 140
10 6 15 188 167 140
9 6 15 118 100 86
8 6 15 118 100 86
7 6 15 118 100 86
35 16 5 188 167 140
-36 17 5 188 167 140
6 6 15 118 100 86
5 6 15 188 167 140
4 6 15 118 100 86
3 6 15 118 100 86
2 6 15 188 167 140
1 6 15 118 100 86
0 6 15 118 100 86
-1 6 15 118 100 86
-2 6 15 118 100 86
-3 6 15 188 167 140
-4 6 15 118 100 86
-5 6 15 118 100 86
-6 6 15 188 167 140
-7 6 15 118 100 86
-8 6 15 118 100 86
-9 6 15 118 100 86
-10 6 15 118 100 86
-11 6 15 188 167 140
-12 6 15 118 100 86
-13 6 15 118 100 86
-14 6 15 188 167 140
-15 6 15 118 100 86
-16 6 15 118 100 86
-17 6 15 118 100 86
-18 6 15 118 100 86
-19 6 15 188 167 140
-20 6 15 118 100 86
-21 6 15 118 100 86
-22 6 15 188 167 140
-23 6 15 118 100 86
-24 6 15 118 100 86
-25 6 15 118 100 86
-26 6 15 118 100 86
-27 6 15 188 167 140
-28 6 15 118 100 86
11 26 31 118 100 86
3 -13 80 188 167 140
-28 28 15 188 167 140
-27 28 15 188 167 140
-26 28 15 188 167 140
-25 28 15 188 167 140
-24 28 15 188 167 140
-17 -12 30 188 167 140
-18 -12 30 188 167 140
-19 -12 30 118 100 86
-20 -12 30 118 100 86
-21 -12 30 118 100 86
-22 -12 30 118 100 86
-23 -12 30 188 167 140
-24 -12 30 188 167 140
-25 -12 30 188 167 140
26 5 15 188 167 140
25 5 15 188 167 140
24 5 15 188 167 140
23 5 15 188 167 140
22 5 15 188 167 140
21 5 15 188 167 140
20 5 15 188 167 140
10 5 15 118 100 86
9 5 15 188 167 140
8 5 15 188 167 140
7 5 15 188 167 140
6 5 15 188 167 140
5 5 15 118 100 86
4 5 15 118 100 86
3 5 15 118 100 86
2 5 15 118 100 86
1 5 15 188 167 140
0 5 15 188 167 140
-1 5 15 188 167 140
35 17 5 188 167 140
-36 18 5 188 167 140
-2 5 15 188 167 140
-3 5 15 118 100 86
-4 5 15 118 100 86
-5 5 15 118 100 86
-6 5 15 118 100 86
-7 5 15 188 167 140
-8 5 15 188 167 140
-9 5 15 188 167 140
-10 5 15 188 167 140
-11 5 15 118 100 86
-12 5 15 118 100 86
-13 5 15 118 100 86
-14 5 15 118 100 86
-15 5 15 188 167 140
-16 5 15 188 167 140
-17 5 15 188 167 140
-18 5 15 188 167 140
-19 5 15 118 100 86
-20 5 15 118 100 86
-21 5 15 118 100 86
-22 5 15 118 100 86
-23 5 15 188 167 140
-24 5 15 188 167 140
-25 5 15 188 167 140
-26 5 15 188 167 140
-27 5 15 118 100 86
-4 -27 87 188 167 140
-3 -27 87 188 167 140
-2 -27 87 188 167 140
14 23 89 188 167 140
-26 -12 30 188 167 140
26 4 15 188 167 140
25 4 15 188 167 140
24 4 15 188 167 140
23 4 15 188 167 140
22 4 15 188 167 140
21 4 15 188 167 140
20 4 15 188 167 140
10 4 15 118 100 86
9 4 15 118 100 86
8 4 15 118 100 86
7 4 15 118 100 86
6 4 15 118 100 86
5 4 15 118 100 86
4 4 15 188 167 140
3 4 15 188 167 140
2 4 15 118 100 86
1 4 15 118 100 86
0 4 15 118 100 86
-1 4 15 118 100 86
-2 4 15 118 100 86
-3 4 15 118 100 86
-4 4 15 188 167 140
-5 4 15 188 167 140
-6 4 15 118 100 86
-7 4 15 118 100 86
-8 4 15 118 100 86
-9 4 15 118 100 86
-10 4 15 118 100 86
-11 4 15 118 100 86
-12 4 15 188 167 140
-13 4 15 188 167 140
-14 4 15 118 100 86
-15 4 15 118 100 86
-16 4 15 118 100 86
-17 4 15 118 100 86
-18 4 15 118 100 86
-19 4 15 118 100 86
-20 4 15 188 167 140
-21 4 15 188 167 140
35 18 5 188 167 140
-36 19 5 188 167 140
-22 4 15 118 100 86
-23 4 15 118 100 86
-24 4 15 118 100 86
-25 4 15 118 100 86
-26 4 15 118 100 86
-27 4 15 118 100 86
17 25 94 188 167 140
17 25 93 188 167 140
-5 -20 33 118 100 86
-6 -20 33 118 100 86
-7 -20 33 188 167 140
-8 -20 33 188 167 140
-9 -20 33 188 167 140
-10 -20 33 188 167 140
-11 -20 33 118 100 86
-27 -12 30 118 100 86
26 3 15 188 167 140
25 3 15 188 167 140
24 3 15 188 167 140
23 3 15 188 167 140
22 3 15 188 167 140
21 3 15 188 167 140
20 3 15 188 167 140
10 3 15 118 100 86
9 3 15 118 100 86
8 3 15 118 100 86
7 3 15 118 100 86
6 3 15 118 100 86
5 3 15 118 100 86
4 3 15 188 167 140
3 3 15 188 167 140
2 3 15 118 100 86
1 3 15 118 100 86
0 3 15 118 100 86
-1 3 15 118 100 86
-2 3 15 118 100 86
-3 3 15 118 100 86
-4 3 15 188 167 140
-5 3 15 188 167 140
-6 3 15 118 100 86
-7 3 15 118 100 86
-8 3 15 118 100 86
-9 3 15 118 100 86
-10 3 15 118 100 86
-11 3 15 118 100 86
-12 3 15 188 167 140
-13 3 15 188 167 140
-14 3 15 118 100 86
-15 3 15 118 100 86
-16 3 15 118 100 86
-17 3 15 118 100 86
-18 3 15 118 100 86
-19 3 15 118 100 86
-20 3 15 188 167 140
-21 3 15 188 167 140
-22 3 15 118 100 86
-23 3 15 118 100 86
-24 3 15 118 100 86
-25 3 15 118 100 86
-26 3 15 118 100 86
-27 3 15 118 100 86
-24 -28 60 188 167 140
9 30 47 188 167 140
-23 28 15 188 167 140
-22 28 15 188 167 140
-21 28 15 188 167 140
-20 28 15 188 167 140
-19 28 15 188 167 140
-18 28 15 188 167 140
-17 28 15 188 167 140
35 19 5 188 167 140
-36 20 5 188 167 140
-28 -12 30 118 100 86
26 2 15 188 167 140
25 2 15 188 167 140
24 2 15 188 167 140
23 2 15 188 167 140
22 2 15 188 167 140
21 2 15 188 167 140
20 2 15 188 167 140
10 2 15 118 100 86
9 2 15 188 167 140
8 2 15 188 167 140
7 2 15 188 167 140
6 2 15 188 167 140
5 2 15 118 100 86
4 2 15 118 100 86
3 2 15 118 100 86
2 2 15 118 100 86
1 2 15 188 167 140
0 2 15 188 167 140
-1 2 15 188 167 140
-2 2 15 188 167 140
-3 2 15 118 100 86
-4 2 15 118 100 86
-5 2 15 118 100 86
-6 2 15 118 100 86
-7 2 15 188 167 140
-8 2 15 188 167 140
-9 2 15 188 167 140
-10 2 15 188 167 140
-11 2 15 118 100 86
-12 2 15 118 100 86
-13 2 15 118 100 86
-14 2 15 118 100 86
-15 2 15 188 167 140
-16 2 15 188 167 140
-17 2 15 188 167 140
-18 2 15 188 167 140
-19 2 15 118 100 86
-20 2 15 118 100 86
-21 2 15 118 100 86
-22 2 15 118 100 86
-23 2 15 188 167 140
-24 2 15 188 167 140
-25 2 15 188 167 140
-26 2 15 188 167 140
-27 2 15 118 100 86
-28 27 16 188 167 140
-28 -36 1 188 167 140
-1 -27 87 188 167 140
0 -27 87 188 167 140
1 -27 87 188 167 140
2 -27 87 188 167 140
3 -27 87 188 167 140
-4 -26 87 188 167 140
-3 -26 87 188 167 140
-2 -26 87 188 167 140
-1 -26 87 188 167 140
0 -26 87 188 167 140
1 -26 87 188 167 140
17 25 92 188 167 140
17 25 91 188 167 140
2 -13 80 188 167 140
26 1 15 188 167 140
25 1 15 188 167 140
24 1 15 188 167 140
23 1 15 188 167 140
22 1 15 188 167 140
21 1 15 188 167 140
20 1 15 188 167 140
10 1 15 188 167 140
35 20 5 188 167 140
-36 21 5 188 167 140
9 1 15 118 100 86
8 1 15 118 100 86
7 1 15 118 100 86
6 1 15 118 100 86
5 1 15 188 167 140
4 1 15 118 100 86
3 1 15 118 100 86
2 1 15 188 167 140
1 1 15 118 100 86
0 1 15 118 100 86
-1 1 15 118 100 86
-2 1 15 118 100 86
-3 1 15 188 167 140
-4 1 15 118 100 86
-5 1 15 118 100 86
-6 1 15 188 167 140
-7 1 15 118 100 86
-8 1 15 118 100 86
-9 1 15 118 100 86
-10 1 15 118 100 86
-11 1 15 188 167 140
-12 1 15 118 100 86
-13 1 15 118 100 86
-14 1 15 188 167 140
-15 1 15 118 100 86
-16 1 15 118 100 86
-17 1 15 118 100 86
-18 1 15 118 100 86
-19 1 15 188 167 140
-20 1 15 118 100 86
-21 1 15 118 100 86
-22 1 15 188 167 140
-23 1 15 118 100 86
-24 1 15 118 100 86
-25 1 15 118 100 86
-26 1 15 118 100 86
-27 1 15 188 167 140
-28 1 15 118 100 86
17 25 90 188 167 140
17 25 89 188 167 140
17 22 102 188 167 140
18 22 102 188 167 140
4 14 92 188 167 140
1 -13 80 188 167 140
26 0 15 188 167 140
25 0 15 188 167 140
24 0 15 188 167 140
23 0 15 188 167 140
22 0 15 188 167 140
21 0 15 188 167 140
20 0 15 188 167 140
10 0 15 188 167 140
9 0 15 118 100 86
8 0 15 188 167 140
7 0 15 188 167 140
6 0 15 118 100 86
5 0 15 188 167 140
4 0 15 118 100 86
3 0 15 118 100 86
2 0 15 188 167 140
1 0 15 118 100 86
0 0 15 188 167 140
-1 0 15 188 167 140
-2 0 15 118 100 86
-3 0 15 188 167 140
-4 0 15 118 100 86
-5 0 15 118 100 86
-6 0 15 188 167 140
-7 0 15 118 100 86
-8 0 15 188 167 140
35 21 5 188 167 140
-36 22 5 188 167 140
-9 0 15 188 167 140
-10 0 15 118 100 86
-11 0 15 188 167 140
-12 0 15 118 100 86
-13 0 15 118 100 86
-14 0 15 188 167 140
-15 0 15 118 100 86
-16 0 15 188 167 140
-17 0 15 188 167 140
-18 0 15 118 100 86
-19 0 15 188 167 140
-20 0 15 118 100 86
-21 0 15 118 100 86
-22 0 15 188 167 140
-23 0 15 118 100 86
-24 0 15 188 167 140
-25 0 15 188 167 140
-26 0 15 118 100 86
-27 0 15 188 167 140
-28 0 15 118 100 86
-12 -20 33 118 100 86
-13 -20 33 118 100 86
-14 -20 33 118 100 86
-15 -20 33 188 167 140
-31 -13 42 188 167 140
-16 -20 33 188 167 140
-17 -20 33 188 167 140
-18 -20 33 188 167 140
-12 -36 9 188 167 140
0 -13 80 188 167 140
26 -1 15 188 167 140
25 -1 15 188 167 140
24 -1 15 188 167 140
23 -1 15 188 167 140
22 -1 15 188 167 140
21 -1 15 188 167 140
20 -1 15 188 167 140
10 -1 15 188 167 140
9 -1 15 118 100 86
8 -1 15 188 167 140
7 -1 15 188 167 140
6 -1 15 118 100 86
5 -1 15 188 167 140
4 -1 15 118 100 86
3 -1 15 118 100 86
2 -1 15 188 167 140
1 -1 15 118 100 86
0 -1 15 188 167 140
-1 -1 15 188 167 140
-2 -1 15 118 100 86
-3 -1 15 188 167 140
-4 -1 15 118 100 86
-5 -1 15 118 100 86
-6 -1 15 188 167 140
-7 -1 15 118 100 86
-8 -1 15 188 167 140
-9 -1 15 188 167 140
-10 -1 15 118 100 86
-11 -1 15 188 167 140
-12 -1 15 118 100 86
-13 -1 15 118 100 86
-14 -1 15 188 167 140
-15 -1 15 118 100 86
-16 -1 15 188 167 140
-17 -1 15 188 167 140
-18 -1 15 118 100 86
-19 -1 15 188 167 140
-20 -1 15 118 100 86
-21 -1 15 118 100 86
-22 -1 15 188 167 140
35 22 5 188 167 140
-36 23 5 188 167 140
-23 -1 15 118 100 86
-24 -1 15 188 167 140
-25 -1 15 188 167 140
-26 -1 15 118 100 86
-27 -1 15 188 167 140
-28 -1 15 118 100 86
-16 28 15 188 167 140
-15 28 15 188 167 140
-14 28 15 188 167 140
-13 28 15 188 167 140
-12 28 15 188 167 140
-11 28 15 188 167 140
-10 28 15 188 167 140
11 -4 32 188 167 140
2 -26 87 188 167 140
3 -26 87 188 167 140
-1 -13 80 188 167 140
26 -2 15 188 167 140
25 -2 15 188 167 140
24 -2 15 188 167 140
23 -2 15 188 167 140
22 -2 15 188 167 140
21 -2 15 188 167 140
20 -2 15 188 167 140
10 -2 15 188 167 140
9 -2 15 118 100 86
8 -2 15 118 100 86
7 -2 15 118 100 86
6 -2 15 118 100 86
5 -2 15 188 167 140
4 -2 15 118 100 86
3 -2 15 118 100 86
2 -2 15 188 167 140
1 -2 15 118 100 86
0 -2 15 118 100 86
-1 -2 15 118 100 86
-2 -2 15 118 100 86
-3 -2 15 188 167 140
-4 -2 15 118 100 86
-5 -2 15 118 100 86
-6 -2 15 188 167 140
-7 -2 15 118 100 86
-8 -2 15 118 100 86
-9 -2 15 118 100 86
-10 -2 15 118 100 86
-11 -2 15 188 167 140
-12 -2 15 118 100 86
-13 -2 15 118 100 86
-14 -2 15 188 167 140
-15 -2 15 118 100 86
-16 -2 15 118 100 86
-17 -2 15 118 100 86
-18 -2 15 118 100 86
-19 -2 15 188 167 140
-20 -2 15 118 100 86
-21 -2 15 118 100 86
-22 -2 15 188 167 140
-23 -2 15 118 100 86
-24 -2 15 118 100 86
-25 -2 15 118 100 86
-26 -2 15 118 100 86
-27 -2 15 188 167 140
-28 -2 15 118 100 86
-4 -25 87 188 167 140
-3 -25 87 188 167 140
-2 -25 87 188 167 140
-1 -25 87 188 167 140
0 -25 87 188 167 140
1 -25 87 188 167 140
2 -25 87 188 167 140
35 23 5 188 167 140
-36 24 5 188 167 140
3 -25 87 188 167 140
-4 -24 87 188 167 140
16 24 95 188 167 140
-30 -13 42 188 167 140
-29 -13 42 188 167 140
-36 -20 43 188 167 140
-35 -20 43 188 167 140
-34 -20 43 188 167 140
-33 -20 43 188 167 140
4 20 89 188 167 140
26 -3 15 188 167 140
25 -3 15 188 167 140
24 -3 15 188 167 140
23 -3 15 188 167 140
22 -3 15 188 167 140
21 -3 15 188 167 140
20 -3 15 188 167 140
10 -3 15 118 100 86
9 -3 15 188 167 140
8 -3 15 188 167 140
7 -3 15 188 167 140
6 -3 15 188 167 140
5 -3 15 118 100 86
4 -3 15 118 100 86
3 -3 15 118 100 86
2 -3 15 118 100 86
1 -3 15 188 167 140
